ply
format ascii 1.0
element vertex 841
property float x
property float y
property float z
end_header
-4.198816776275635 -0.3942326009273529 6.624706745147705
-4.201310634613037 -0.05730385333299637 6.595069885253906
-4.199824810028076 -0.07895443588495255 6.597965717315674
-4.1469011306762695 -1.1928999423980713 6.677428245544434
-4.202666282653809 -0.5324403643608093 6.64516544342041
-4.145829200744629 -0.8611484169960022 6.655378341674805
-4.20853853225708 -0.6276487708091736 6.663257122039795
-4.20853853225708 -0.6276487708091736 6.663257122039795
-4.1790032386779785 -0.49560385942459106 6.637541770935059
-4.1790032386779785 -0.49560385942459106 6.637541770935059
-4.174764633178711 -1.9566401243209839 6.775414943695068
-4.161909103393555 -0.8415728211402893 6.665372371673584
-4.199052333831787 -0.15858042240142822 6.625814914703369
-4.199052333831787 -0.15858042240142822 6.625814914703369
-4.149334907531738 -0.94184410572052 6.6826934814453125
-4.149334907531738 -0.94184410572052 6.6826934814453125
-4.124222278594971 -1.198063850402832 6.696177959442139
-4.20100736618042 -0.3071899116039276 6.6529154777526855
-4.21145486831665 -0.5639162063598633 6.682714939117432
-4.160559177398682 -0.6669313311576843 6.668102264404297
-4.210910320281982 -0.2685071527957916 6.654898166656494
-4.209107398986816 -0.627945065498352 6.692556381225586
-4.154225826263428 -1.0965595245361328 6.7104644775390625
-4.154225826263428 -1.0965595245361328 6.7104644775390625
-4.174901485443115 -0.07578667998313904 6.6272101402282715
-4.176336288452148 -0.05230829119682312 6.628726005554199
-4.136256217956543 -0.7310721278190613 6.680356025695801
-4.153777599334717 -0.8350536823272705 6.700296401977539
-4.150070667266846 -1.0499032735824585 6.7198405265808105
-4.120028018951416 -1.1362980604171753 6.7155656814575195
-4.210763454437256 -0.6090267896652222 6.710930347442627
-4.199848651885986 -0.13983193039894104 6.6624579429626465
-4.215954303741455 -0.5902765989303589 6.716769695281982
-4.192187309265137 -0.18755921721458435 6.674401760101318
-4.144416809082031 -0.7496669888496399 6.707659721374512
-4.19744348526001 -0.258017361164093 6.687233924865723
-4.206965923309326 -0.5842732787132263 6.723892688751221
-4.150289535522461 -0.8488885164260864 6.727049827575684
-4.158441066741943 -0.2448253482580185 6.682394027709961
-4.152333736419678 -1.032131552696228 6.755550861358643
-4.132210731506348 -1.1402736902236938 6.760568141937256
-4.195956230163574 -0.13356748223304749 6.701242446899414
-4.161689758300781 -1.0659819841384888 6.7770256996154785
-4.20380163192749 -0.5298941731452942 6.754364490509033
-4.105642318725586 -1.1001026630401611 6.761612892150879
-4.2005534172058105 -0.596538245677948 6.7605438232421875
-4.194442272186279 -0.3602593243122101 6.7383952140808105
-4.142868518829346 -0.8130447864532471 6.7587738037109375
-4.100943565368652 -1.1747815608978271 6.773819923400879
-4.103647232055664 -1.1864720582962036 6.77903938293457
-4.1211323738098145 -0.7388268113136292 6.750455856323242
-4.197597026824951 -0.2248418629169464 6.748030662536621
-4.198462009429932 -0.30252981185913086 6.759426593780518
-4.198462009429932 -0.30252981185913086 6.759426593780518
-4.199708938598633 -0.4686114490032196 6.778999328613281
-4.199767589569092 -0.11888477206230164 6.746318340301514
-4.134285926818848 -1.1684744358062744 6.816247463226318
-4.199416637420654 -0.527507483959198 6.788075923919678
-4.12429141998291 -1.0968512296676636 6.809053897857666
-4.200362682342529 -0.34500813484191895 6.776399612426758
-4.139742851257324 -1.0497543811798096 6.822303295135498
-4.124814033508301 -0.9956352114677429 6.811863422393799
-4.13376522064209 -1.029388189315796 6.8235297203063965
-4.12435245513916 -1.1875137090682983 6.83540678024292
-4.191954135894775 -0.18258479237556458 6.78257942199707
-4.191751480102539 -0.25779426097869873 6.792335510253906
-4.206679344177246 -0.5091248154640198 6.827409744262695
-4.196123123168945 -0.45605385303497314 6.820351600646973
-4.190183162689209 -1.9598945379257202 6.968699932098389
-4.136851787567139 -0.8342117071151733 6.847857475280762
-4.195214748382568 -0.41018834710121155 6.83815860748291
-4.148553848266602 -0.8423650860786438 6.876457214355469
-4.1428937911987305 -0.8197048306465149 6.877042293548584
-4.122096061706543 -1.0525823831558228 6.913819313049316
-4.13299560546875 -0.8093397617340088 6.919445991516113
-4.130285263061523 -0.8444309830665588 6.923397064208984
-4.139630317687988 -0.9031103849411011 6.9340739250183105
-4.138898849487305 -0.7661093473434448 6.924826145172119
-4.139908790588379 -1.0159070491790771 6.9565582275390625
-4.1173224449157715 -0.8884776830673218 6.958605766296387
-4.143779277801514 -0.9783209562301636 6.992186546325684
-4.147130012512207 -0.5743308067321777 6.961424350738525
-4.147130012512207 -0.5743308067321777 6.961424350738525
-4.111227035522461 -1.0508486032485962 6.991232872009277
-4.099940776824951 -0.9170716404914856 7.008810520172119
-3.5257408618927 0.16083793342113495 6.601494312286377
-4.108127593994141 1.153703212738037 6.80659294128418
-4.102814197540283 -0.5649236440658569 6.988982677459717
-4.0843892097473145 -0.8513241410255432 7.010098934173584
-4.100947380065918 -1.0369336605072021 7.039553642272949
-4.094328880310059 -0.8748344779014587 7.022701263427734
-4.128044605255127 -1.0670044422149658 7.0910563468933105
-4.134011745452881 -0.9790255427360535 7.09171724319458
-4.124833106994629 -1.0879889726638794 7.102080821990967
-4.111806869506836 -0.5619775056838989 7.053813457489014
-4.116635322570801 -0.9936754107475281 7.103466510772705
-4.109964370727539 -1.0184738636016846 7.10420560836792
-3.4866325855255127 0.1904875636100769 6.658452987670898
-4.122389793395996 -1.0315595865249634 7.133347034454346
-4.135017395019531 -0.8375104665756226 7.1216511726379395
-4.164154529571533 -1.6975980997085571 7.241607189178467
-4.13328742980957 -1.0579986572265625 7.164022445678711
-4.137927532196045 -0.907357931137085 7.164466381072998
-4.148371696472168 -0.7276066541671753 7.172989845275879
-4.132119655609131 -0.6111832857131958 7.1997809410095215
-4.156055927276611 -1.5867873430252075 7.322007179260254
-4.161462783813477 -1.7782832384109497 7.360100746154785
-4.133877754211426 -0.5093371868133545 7.223992824554443
-4.133877754211426 -0.5093371868133545 7.223992824554443
-4.139115333557129 -0.41020891070365906 7.221921920776367
-4.100633144378662 -0.6476483345031738 7.230666637420654
-4.135880470275879 -0.4674568474292755 7.233983516693115
-4.129188537597656 -0.3730722963809967 7.228670597076416
-4.138172626495361 -0.43256592750549316 7.2476677894592285
-4.127626419067383 -0.611527681350708 7.261146068572998
-4.133298397064209 -0.5810097455978394 7.263035774230957
-4.126784324645996 -0.4004737436771393 7.240787506103516
-4.1347336769104 -0.7109543085098267 7.287838935852051
-4.166419506072998 -1.8025181293487549 7.434314250946045
-4.166419506072998 -1.8025181293487549 7.434314250946045
-3.5257019996643066 0.40613943338394165 6.86988639831543
-3.5257019996643066 0.40613943338394165 6.86988639831543
-4.1566033363342285 -1.5393904447555542 7.4395833015441895
-4.157006740570068 -1.8038729429244995 7.46768045425415
-4.152721405029297 -1.9371211528778076 7.491535663604736
-4.158980846405029 -1.6506876945495605 7.465428352355957
-4.136650562286377 -1.809707760810852 7.576834201812744
-4.1264872550964355 -0.6443666219711304 7.517982482910156
-4.120995998382568 -0.6323772072792053 7.534481525421143
-4.122942924499512 -0.6661927700042725 7.546253204345703
-4.122942924499512 -0.6661927700042725 7.546253204345703
-4.112192153930664 -0.5377692580223083 7.530727863311768
-3.6137475967407227 0.3571263551712036 7.140851020812988
-4.0953803062438965 0.6282283663749695 7.40151834487915
-4.1224284172058105 -0.738519012928009 7.583191394805908
-4.1224284172058105 -0.738519012928009 7.583191394805908
-3.6037187576293945 0.35738256573677063 7.1583404541015625
-4.086813926696777 0.5870092511177063 7.427803993225098
-4.119634628295898 -0.723555326461792 7.595455646514893
-4.116077899932861 -0.7043759226799011 7.606531620025635
-4.1248321533203125 -0.7329563498497009 7.61975622177124
-4.137335777282715 -1.834774374961853 7.755667209625244
-4.042612552642822 -0.1049007922410965 7.524400234222412
-4.150314807891846 -0.32119742035865784 7.619647026062012
-4.177310466766357 -1.7353209257125854 7.796252250671387
-4.177310466766357 -1.7353209257125854 7.796252250671387
-4.122259140014648 -0.675730288028717 7.664337635040283
-4.083827495574951 0.5986186265945435 7.503699779510498
-4.083827495574951 0.5986186265945435 7.503699779510498
-4.119185924530029 -0.6481918692588806 7.664396286010742
-4.117323398590088 -0.6221635341644287 7.694145202636719
-4.086691856384277 0.554227352142334 7.5562238693237305
-4.086691856384277 0.554227352142334 7.5562238693237305
-4.1838579177856445 -1.7251640558242798 7.891335487365723
-4.1838579177856445 -1.7251640558242798 7.891335487365723
-4.119503498077393 -0.7066853046417236 7.742915630340576
-4.128077030181885 -0.6692148447036743 7.762763977050781
-4.128077030181885 -0.6692148447036743 7.762763977050781
-4.113706111907959 -0.6914600729942322 7.776520729064941
-4.103145122528076 -0.6161313652992249 7.825717926025391
-4.172893524169922 -1.6694813966751099 7.998463153839111
-4.085151195526123 0.19466017186641693 7.740909099578857
-4.0829572677612305 -0.5917649865150452 7.844023704528809
-4.1150007247924805 -0.9791457653045654 7.9389519691467285
-4.103049278259277 -0.6043663024902344 7.938898086547852
-4.084341526031494 0.3759864270687103 7.887364864349365
-4.075629711151123 0.43842485547065735 7.905681610107422
-4.075629711151123 0.43842485547065735 7.905681610107422
-4.07623291015625 0.3071814179420471 7.940927505493164
-4.0909929275512695 -0.3280628025531769 8.04271125793457
-4.094457626342773 -0.5408077836036682 8.077322006225586
-4.097782135009766 -0.6301178336143494 8.092061042785645
-4.111506462097168 -1.1954048871994019 8.18549919128418
-4.1058735847473145 -1.4011255502700806 8.206563949584961
-4.07288122177124 0.3566476106643677 7.977631568908691
-4.115669250488281 -1.6365774869918823 8.283020973205566
-4.114652633666992 -1.7734616994857788 8.326512336730957
-4.149261474609375 -1.6990623474121094 8.46695613861084
-4.085796356201172 0.46256229281425476 8.211291313171387
-4.05433464050293 0.4293971359729767 8.195677757263184
-4.0863800048828125 -1.412893533706665 8.473275184631348
-4.041354656219482 0.4104105532169342 8.217429161071777
-4.0955352783203125 -1.456300139427185 8.486706733703613
-4.096933841705322 -1.5665357112884521 8.50367546081543
-4.095212936401367 -1.4036712646484375 8.492997169494629
-4.099557399749756 -1.4981942176818848 8.515438079833984
-4.050515174865723 0.46987825632095337 8.245643615722656
-4.09715461730957 -1.579351544380188 8.541304588317871
-4.055888652801514 0.45153313875198364 8.288516998291016
-4.089247226715088 -1.467844843864441 8.613349914550781
-4.096744537353516 -1.5346709489822388 8.640192985534668
-4.031233787536621 0.8316566348075867 8.325687408447266
-4.032968997955322 0.6817469000816345 8.398703575134277
-4.032968997955322 0.6817469000816345 8.398703575134277
-4.0343732833862305 0.876037061214447 8.426055908203125
17.907499313354492 5.067915916442871 -8.358235359191895
-4.060724258422852 -0.4998527765274048 8.705963134765625
-4.097546100616455 -1.7179811000823975 8.90803337097168
-4.0583038330078125 -0.5492751598358154 8.751708030700684
-4.051136493682861 -0.5335212349891663 8.761281967163086
-4.067533493041992 -0.5845504403114319 8.798249244689941
0.24047057330608368 0.9998959898948669 5.327622413635254
-4.091052532196045 -0.11696848273277283 8.795306205749512
-4.091052532196045 -0.11696848273277283 8.795306205749512
-4.026744365692139 0.7204141616821289 8.641575813293457
-4.062248229980469 -0.6234308481216431 8.846563339233398
-4.062248229980469 -0.6234308481216431 8.846563339233398
-4.051562786102295 -0.44884786009788513 8.846487045288086
-4.054323673248291 -0.5899665355682373 8.89268970489502
-4.044553279876709 -0.6098957061767578 8.911787986755371
-4.018352031707764 0.7846488952636719 8.713554382324219
-4.029849052429199 0.464326411485672 8.795367240905762
-4.084453105926514 -0.09993430972099304 8.917153358459473
-4.064049243927002 -1.679245948791504 9.124006271362305
-4.046379089355469 -0.7192779779434204 9.071843147277832
-4.051741123199463 -0.7709243893623352 9.109222412109375
-6.183260917663574 -3.199164867401123 11.3455810546875
-6.274440765380859 -3.1644513607025146 11.45490837097168
-6.093386173248291 -3.1557796001434326 11.365410804748535
-4.0460991859436035 -1.3245556354522705 9.619332313537598
-4.0460991859436035 -1.3245556354522705 9.619332313537598
-3.9913127422332764 0.7979565858840942 9.311688423156738
-3.991966485977173 0.6887917518615723 9.328802108764648
-4.0192670822143555 -1.525744080543518 9.689957618713379
-4.0134172439575195 -1.5065114498138428 9.757067680358887
-3.967322826385498 0.8854755759239197 9.368206024169922
-3.9499874114990234 0.8261277675628662 9.4482421875
-4.118842124938965 -1.874232530593872 10.09268569946289
-4.014500617980957 -0.9580265879631042 10.128975868225098
-4.373656749725342 -2.003830909729004 10.65324592590332
-4.273164749145508 -2.2509829998016357 10.640996932983398
-3.958819627761841 1.8026132583618164 9.872288703918457
-4.03225040435791 -0.6824320554733276 10.379639625549316
-3.863373279571533 -0.07410038262605667 10.147685050964355
-4.034331321716309 -0.656135618686676 10.47009563446045
-4.0064520835876465 -0.08837679028511047 10.389970779418945
-3.9071409702301025 1.075341820716858 10.237753868103027
-3.9437737464904785 -1.2906577587127686 10.71414852142334
-4.040940761566162 -2.3932368755340576 11.186406135559082
-4.036920070648193 -1.7478363513946533 11.139244079589844
-3.9501795768737793 -1.0967289209365845 10.986173629760742
-3.9501795768737793 -1.0967289209365845 10.986173629760742
-3.9038071632385254 -1.0041587352752686 10.933028221130371
-3.815441370010376 0.6405016779899597 10.602330207824707
-3.9118809700012207 -2.8649394512176514 11.322816848754883
-3.7182581424713135 -1.5255730152130127 11.052836418151855
-3.7367870807647705 -2.3432958126068115 11.226561546325684
-3.6335177421569824 -1.3096246719360352 11.087081909179688
-3.6108779907226562 -1.1239466667175293 11.046551704406738
-3.5907440185546875 -0.14008262753486633 10.872236251831055
-3.6177101135253906 -1.7200111150741577 11.193117141723633
-3.6177101135253906 -1.7200111150741577 11.193117141723633
-3.5691487789154053 1.2781386375427246 10.654696464538574
-3.950796127319336 -3.353755235671997 11.920012474060059
-3.5767433643341064 0.0837055891752243 10.910599708557129
-3.9388794898986816 -3.544577121734619 11.967041015625
-3.9212870597839355 -3.611497402191162 11.964594841003418
-3.902129650115967 -3.5659608840942383 11.97252368927002
-3.902129650115967 -3.5659608840942383 11.97252368927002
-4.164632320404053 -2.3923468589782715 12.07223129272461
-3.5555777549743652 1.3401051759719849 10.721744537353516
-3.491492986679077 1.8032689094543457 10.596744537353516
-3.5011255741119385 0.6225045919418335 10.829780578613281
-3.88560152053833 -3.3400485515594482 11.982732772827148
-3.8555281162261963 -3.326111078262329 11.950881958007812
-3.520810127258301 0.12522634863853455 10.985467910766602
-3.455360174179077 1.3815953731536865 10.737234115600586
-3.4863498210906982 2.3296148777008057 10.65228271484375
-3.46479868888855 2.3519694805145264 10.629069328308105
-3.4512317180633545 1.4490865468978882 10.799845695495605
-3.4980199337005615 -0.7931533455848694 11.306967735290527
-3.3974106311798096 0.5869373679161072 10.964881896972656
-3.3961517810821533 1.5551022291183472 10.802909851074219
-3.3998794555664062 2.313026189804077 10.688891410827637
-3.352107048034668 1.812971830368042 10.73452091217041
-3.382758617401123 -1.2491068840026855 11.351373672485352
-3.317218542098999 2.3232264518737793 10.709879875183105
-3.3133535385131836 2.0496902465820312 10.96757698059082
-3.3483076095581055 -1.0285067558288574 11.621414184570312
-3.342550039291382 -1.1288913488388062 11.634726524353027
-3.5808615684509277 -2.4757943153381348 12.284530639648438
-3.2995989322662354 0.9033870100975037 11.310129165649414
-3.319321870803833 1.1925262212753296 11.290160179138184
-3.618326425552368 -2.066033124923706 12.56096363067627
-3.113938331604004 1.525094985961914 11.29033374786377
-3.028324604034424 0.6413587927818298 11.370447158813477
-2.9857778549194336 -0.587911069393158 11.594695091247559
-2.9212491512298584 -0.5614827871322632 11.554919242858887
-2.8244614601135254 0.130203977227211 11.386308670043945
-2.845719814300537 -0.8987884521484375 11.64547061920166
-2.761866331100464 -0.9516049027442932 11.60163402557373
-2.740814208984375 -0.7354663610458374 11.56791877746582
-4.547179698944092 -3.386320114135742 2.900073289871216
-4.399478912353516 -1.4177343845367432 2.83596134185791
-4.397510051727295 -1.441864013671875 2.8733441829681396
-4.406364440917969 -1.7480504512786865 2.9129621982574463
-4.398149490356445 -1.49577796459198 2.899343252182007
-4.395173072814941 -1.7181087732315063 2.924128532409668
-4.35693359375 -0.20331068336963654 2.8286733627319336
-4.391127586364746 -1.3625860214233398 2.9120001792907715
-4.397270679473877 -1.45455002784729 2.919635772705078
-4.397256374359131 -1.376084327697754 2.915403366088867
-4.403757572174072 -1.6789007186889648 2.9367752075195312
-4.395501136779785 -1.3896702527999878 2.9223015308380127
-4.396374225616455 -1.3802857398986816 2.9353976249694824
-4.40278434753418 -1.4129223823547363 2.9410033226013184
-4.318918228149414 0.8943358659744263 2.804377794265747
-4.387590408325195 -1.3579795360565186 2.961702346801758
-4.383594512939453 0.6050320863723755 2.8383710384368896
-4.349584102630615 -0.14883674681186676 2.8989603519439697
-4.324062347412109 0.7764979600906372 2.8415088653564453
-4.390227794647217 -1.4490684270858765 3.0087451934814453
-4.346096992492676 -0.06976412981748581 2.916257381439209
-4.346096992492676 -0.06976412981748581 2.916257381439209
-4.390597820281982 -1.5671321153640747 3.021010398864746
-4.3872270584106445 -1.4153125286102295 3.022876262664795
-4.39086389541626 -1.42709481716156 3.027446985244751
-4.361860752105713 -0.41852328181266785 2.9622130393981934
-4.349609375 -0.19840943813323975 2.9533817768096924
-4.459199905395508 -2.352113962173462 3.1018612384796143
-4.389638423919678 -1.3810811042785645 3.0491995811462402
-4.389617443084717 -1.5254896879196167 3.0687599182128906
-4.383258819580078 -1.5049083232879639 3.068028688430786
-4.350841522216797 -0.18738539516925812 2.9747352600097656
-4.387493133544922 -1.4029152393341064 3.0671322345733643
-4.380044937133789 -1.505295991897583 3.0863776206970215
-4.38247537612915 -1.4098073244094849 3.089625597000122
-4.347209453582764 -0.1518523246049881 2.9995532035827637
-4.387057304382324 -1.4709110260009766 3.096954584121704
-4.3820977210998535 -1.4731149673461914 3.1189968585968018
-4.3820977210998535 -1.4731149673461914 3.1189968585968018
-4.388822078704834 -1.4905530214309692 3.1218082904815674
-4.312777519226074 0.7527105212211609 2.9847776889801025
-4.372561931610107 -1.4499831199645996 3.1749165058135986
-4.378819465637207 -1.3507626056671143 3.1680126190185547
-4.372812271118164 -1.4937803745269775 3.181138515472412
-4.322077751159668 0.6595985889434814 3.0222370624542236
-4.375351428985596 -1.4193949699401855 3.183593273162842
-4.375351428985596 -1.4193949699401855 3.183593273162842
-4.377777099609375 -1.4337701797485352 3.196047067642212
-4.369529724121094 -1.362235426902771 3.2042481899261475
-4.377063274383545 -1.3456618785858154 3.212803602218628
-4.337663173675537 -0.17592452466487885 3.127459764480591
-4.337663173675537 -0.17592452466487885 3.127459764480591
-4.334927082061768 0.21682249009609222 3.0984179973602295
-4.334927082061768 0.21682249009609222 3.0984179973602295
-4.334776878356934 0.010997422970831394 3.1230080127716064
-4.334776878356934 0.010997422970831394 3.1230080127716064
-4.365854740142822 -1.3298721313476562 3.227299451828003
-4.365854740142822 -1.3298721313476562 3.227299451828003
-4.334452152252197 0.10691501945257187 3.1254773139953613
-4.766275405883789 -3.0966761112213135 3.3496861457824707
-4.309434413909912 0.671748161315918 3.096085786819458
-4.364579677581787 -1.2570116519927979 3.2494773864746094
-4.763055801391602 -3.0944223403930664 3.405139684677124
-4.764784336090088 -3.0843021869659424 3.4170937538146973
-4.369854927062988 -1.342431664466858 3.3221771717071533
-4.396168231964111 -2.459362268447876 3.4671332836151123
-4.3645920753479 -1.3372451066970825 3.3851921558380127
-4.334779262542725 -0.369078129529953 3.3262269496917725
-4.337220668792725 -0.6680381894111633 3.390536308288574
-4.373424530029297 -2.301112413406372 3.5960896015167236
-4.373424530029297 -2.301112413406372 3.5960896015167236
-4.362748622894287 -2.205073833465576 3.599216938018799
-4.38335657119751 -2.2615842819213867 3.629371404647827
-4.3796706199646 -2.2816455364227295 3.656402587890625
-4.380481719970703 -2.4155678749084473 3.6745967864990234
-4.376818656921387 -2.232729911804199 3.6620981693267822
-4.375611782073975 -2.232732057571411 3.6623363494873047
-4.278258800506592 0.9602998495101929 3.4049766063690186
-4.257610321044922 1.0431452989578247 3.4066312313079834
-4.31632137298584 0.05021943524479866 3.492795467376709
-4.315407752990723 -0.046706221997737885 3.504148483276367
-4.315407752990723 -0.046706221997737885 3.504148483276367
-4.238572120666504 1.1033684015274048 3.440643310546875
-4.238572120666504 1.1033684015274048 3.440643310546875
-4.271824359893799 0.5270360112190247 3.502816677093506
-4.370182037353516 -2.236814260482788 3.7539780139923096
-4.275659561157227 0.5060206055641174 3.537628173828125
-4.271717548370361 0.8781935572624207 3.5057871341705322
-4.263725280761719 0.4485898017883301 3.547579288482666
-4.256467819213867 1.0564543008804321 3.4973201751708984
-4.285109043121338 -0.0989736020565033 3.6013102531433105
-4.284390926361084 0.38865163922309875 3.5592174530029297
-4.284390926361084 0.38865163922309875 3.5592174530029297
-4.282804012298584 0.2802826464176178 3.576076030731201
-4.282804012298584 0.2802826464176178 3.576076030731201
-4.270622730255127 0.8696996569633484 3.5263559818267822
-4.391245365142822 -2.2624354362487793 3.8160364627838135
-4.29368782043457 -0.04262439161539078 3.627351999282837
-4.29368782043457 -0.04262439161539078 3.627351999282837
-4.360658168792725 -2.298265218734741 3.8285293579101562
-4.360658168792725 -2.298265218734741 3.8285293579101562
-4.285177707672119 -0.19174663722515106 3.6512246131896973
-4.360750675201416 -2.14697527885437 3.8319482803344727
-4.364869594573975 -2.2089102268218994 3.843313694000244
-4.364869594573975 -2.2089102268218994 3.843313694000244
-4.291312217712402 -0.19133085012435913 3.6645328998565674
-4.272678852081299 1.03350031375885 3.5551750659942627
-4.357027530670166 -2.1133339405059814 3.840128183364868
-4.361016273498535 -2.237945079803467 3.855973958969116
-4.361016273498535 -2.237945079803467 3.855973958969116
-4.305881977081299 -0.13373008370399475 3.6721842288970947
-4.296753406524658 -0.0899602398276329 3.6721301078796387
-4.301879405975342 -0.20641005039215088 3.6831493377685547
-4.2714033126831055 1.0188184976577759 3.58076548576355
-4.304784774780273 -0.11389579623937607 3.6958487033843994
-4.370594501495361 -2.5018720626831055 3.916816234588623
-4.300442695617676 -0.28865569829940796 3.7182137966156006
-4.334153652191162 -1.7328404188156128 3.867140054702759
-4.302940368652344 -0.35589534044265747 3.7449402809143066
-4.310363292694092 -0.22947262227535248 3.7403602600097656
-4.307264804840088 -0.29395192861557007 3.7698280811309814
-4.295577049255371 -0.006527692545205355 3.7568421363830566
-4.309057235717773 -0.35101985931396484 3.792104959487915
-4.311625957489014 -0.6587768197059631 3.8435590267181396
-4.349377632141113 -2.2217373847961426 4.02881383895874
-4.3527116775512695 -2.311718702316284 4.055211544036865
-4.272078037261963 0.8856233954429626 3.7546231746673584
-4.361767292022705 -2.434814691543579 4.072618007659912
-4.348779201507568 -2.2628345489501953 4.07531213760376
-4.306061744689941 -0.4435814619064331 3.9115731716156006
-4.352033615112305 -2.216109275817871 4.108313083648682
-4.346606731414795 -2.2853763103485107 4.1808295249938965
-4.329123497009277 -2.3584930896759033 4.1921772956848145
-4.288557529449463 -0.269550621509552 3.9878993034362793
-4.288557529449463 -0.269550621509552 3.9878993034362793
-4.337836742401123 -1.724222183227539 4.132521152496338
-4.336391448974609 -2.1637492179870605 4.201183795928955
-4.35057258605957 -2.277933120727539 4.2541399002075195
-4.2860541343688965 0.024662001058459282 4.038773059844971
-4.333244800567627 -2.074023962020874 4.283200740814209
-4.251830577850342 0.9166363477706909 4.001622200012207
-4.276490688323975 0.14626866579055786 4.089057445526123
-4.32063102722168 -1.0479649305343628 4.234069347381592
-4.275189399719238 0.02906065061688423 4.134872913360596
-4.275189399719238 0.02906065061688423 4.134872913360596
-4.276296615600586 0.004912534262984991 4.153777122497559
-4.274084568023682 0.024352412670850754 4.161930561065674
-4.274084568023682 0.024352412670850754 4.161930561065674
-4.309789180755615 -1.187304973602295 4.295447826385498
-4.35732364654541 -2.199150800704956 4.421664714813232
-4.297496318817139 -1.24717116355896 4.363852024078369
-4.243634223937988 0.9873760342597961 4.13489294052124
-4.3069682121276855 -1.4832490682601929 4.405014514923096
-4.303921699523926 -1.1512486934661865 4.372824668884277
-4.304045677185059 -1.200710654258728 4.378641128540039
-4.2788190841674805 -0.25172117352485657 4.279660701751709
-4.2509379386901855 0.9709464907646179 4.151942253112793
-4.2877655029296875 -0.2603486478328705 4.293438911437988
-4.299773216247559 -1.1418888568878174 4.395949363708496
-4.297507286071777 -1.2266616821289062 4.408412456512451
-4.268704414367676 0.0963718518614769 4.270902156829834
-4.297677040100098 -1.162251591682434 4.408817291259766
-4.2690863609313965 -0.2535293996334076 4.317399978637695
-4.2690863609313965 -0.2535293996334076 4.317399978637695
-4.310102939605713 0.4160328507423401 4.251220703125
-4.266908645629883 0.0540555864572525 4.291840076446533
-4.295200824737549 -1.2189387083053589 4.428115367889404
-4.2663044929504395 0.028819657862186432 4.307667255401611
-4.295554161071777 -1.1280677318572998 4.432859420776367
-4.2876081466674805 -1.142059087753296 4.436070919036865
-4.27046012878418 -0.2496357411146164 4.342663764953613
-4.267160415649414 -0.2992093861103058 4.350645542144775
-4.325150012969971 0.28919342160224915 4.297130107879639
-4.265829563140869 0.01966274157166481 4.3232197761535645
-4.23798131942749 1.1132171154022217 4.207858085632324
-4.307894706726074 -1.418076753616333 4.482875823974609
-4.292042255401611 -1.1722118854522705 4.459690570831299
-4.334933757781982 -0.850872814655304 4.431972980499268
-4.334933757781982 -0.850872814655304 4.431972980499268
-4.29567289352417 -1.197836995124817 4.467602252960205
-4.297391891479492 -1.4238334894180298 4.4926629066467285
-4.336803913116455 -1.0458629131317139 4.464039325714111
-4.336803913116455 -1.0458629131317139 4.464039325714111
-4.336803913116455 -1.0458629131317139 4.464039325714111
-4.299290180206299 -1.2403327226638794 4.485964298248291
-4.299252033233643 -1.332367181777954 4.498526573181152
-4.30063009262085 -1.318432331085205 4.5005784034729
-4.338251113891602 -1.0309171676635742 4.479743480682373
-4.296863079071045 -1.1881208419799805 4.493986129760742
-4.296863079071045 -1.1881208419799805 4.493986129760742
-4.29379940032959 0.8667328953742981 4.273641586303711
-4.29379940032959 0.8667328953742981 4.273641586303711
-4.298113822937012 0.791122317314148 4.288297653198242
-4.300029754638672 -1.330786108970642 4.516731262207031
-4.29205846786499 0.8334773778915405 4.287927150726318
-4.29205846786499 0.8334773778915405 4.287927150726318
-4.291449069976807 -1.2960366010665894 4.522096633911133
-4.258429050445557 0.11473990976810455 4.3703460693359375
-4.312458515167236 -0.39405569434165955 4.431502342224121
-4.2578816413879395 0.08337181806564331 4.377452373504639
-4.259951591491699 0.006991928443312645 4.391657829284668
-4.259951591491699 0.006991928443312645 4.391657829284668
-4.294029235839844 0.8556444644927979 4.302990436553955
-4.294029235839844 0.8556444644927979 4.302990436553955
-4.291212558746338 -1.2262279987335205 4.534839630126953
-4.291212558746338 -1.2262279987335205 4.534839630126953
-4.277936935424805 -0.2943699061870575 4.439130783081055
-4.292534351348877 -1.285571575164795 4.55451774597168
-4.254269123077393 0.14446336030960083 4.3968505859375
-4.294066905975342 -1.1237409114837646 4.540771484375
-4.294066905975342 -1.1237409114837646 4.540771484375
-4.291562557220459 0.874367356300354 4.324538707733154
-4.294686317443848 -1.4957314729690552 4.585999011993408
-4.264007568359375 0.09782078117132187 4.412915229797363
-4.290862083435059 -1.2360899448394775 4.560986518859863
-4.310776710510254 -2.310885190963745 4.6829729080200195
-4.310776710510254 -2.310885190963745 4.6829729080200195
-4.285617828369141 -1.3115469217300415 4.573543071746826
-4.289337635040283 -1.177311658859253 4.567166805267334
-4.287608623504639 -1.1373652219772339 4.576545715332031
-4.290650367736816 -1.1631810665130615 4.583151340484619
-4.292317867279053 -1.2877079248428345 4.597690582275391
-4.259525775909424 0.07638494670391083 4.454206466674805
-4.292649745941162 -1.2355314493179321 4.602976322174072
-4.336665153503418 -0.9689643979072571 4.5869059562683105
-4.290074348449707 -1.1145483255386353 4.606096267700195
-4.290074348449707 -1.1145483255386353 4.606096267700195
-4.695080757141113 -2.9881432056427 4.844881534576416
-4.290694713592529 -1.221409559249878 4.622622013092041
-4.260238170623779 -0.22306720912456512 4.512507915496826
-4.253513813018799 0.08869187533855438 4.478331565856934
-4.22392463684082 1.1478923559188843 4.35922384262085
-4.297107219696045 -1.3781236410140991 4.643954753875732
-4.299855709075928 -1.2371340990066528 4.633109092712402
-4.229339122772217 1.0114699602127075 4.381004333496094
-4.285616874694824 -1.113869071006775 4.622309684753418
-4.267389297485352 0.0409550704061985 4.502200603485107
-4.291049480438232 -1.201537847518921 4.642232418060303
-4.327016353607178 -0.8055875897407532 4.60365104675293
-4.229419231414795 1.0283877849578857 4.3979902267456055
-4.306668281555176 -2.3763179779052734 4.786244869232178
-4.254549980163574 0.031579237431287766 4.5167622566223145
-4.285032749176025 -1.1409587860107422 4.650801181793213
-4.359428405761719 -2.180412769317627 4.775161266326904
-4.267793655395508 -0.2280687689781189 4.560422897338867
-4.681430816650391 -3.1638972759246826 4.9282402992248535
-4.288021087646484 -1.1004152297973633 4.666151523590088
-4.288021087646484 -1.1004152297973633 4.666151523590088
-4.322054386138916 -0.7980808615684509 4.636285305023193
-4.322054386138916 -0.7980808615684509 4.636285305023193
-4.308399677276611 -2.2766239643096924 4.805599212646484
-4.28287935256958 -1.3968809843063354 4.712029457092285
-4.307499885559082 -2.347269296646118 4.831098556518555
-4.291049003601074 -1.090583324432373 4.691266059875488
-4.306497573852539 -2.287360191345215 4.828823566436768
-4.2746477127075195 -1.3914439678192139 4.735625267028809
-4.226452350616455 0.9891710877418518 4.466231822967529
-4.282360076904297 -1.0962352752685547 4.70819091796875
-4.283301830291748 -1.109573483467102 4.718799591064453
-4.224395275115967 1.0044411420822144 4.483149528503418
-4.300444602966309 -2.348336935043335 4.881185054779053
-4.24754524230957 0.16028547286987305 4.610111713409424
-4.250195503234863 0.12968257069587708 4.613955974578857
-4.283003330230713 -1.1362237930297852 4.76291561126709
-4.280115127563477 -1.117063045501709 4.771848201751709
-4.2400641441345215 0.3412138521671295 4.605698108673096
-4.280603885650635 -1.1340818405151367 4.780869960784912
-4.3082966804504395 -2.192570209503174 4.904511451721191
-4.24085807800293 0.22949853539466858 4.623215198516846
-4.225709915161133 0.5679453611373901 4.594961166381836
-4.280775547027588 -1.1101832389831543 4.795046806335449
-4.275702476501465 -1.468798279762268 4.841742992401123
-4.23936128616333 0.3454284071922302 4.6310834884643555
-4.250911235809326 0.064667709171772 4.6667327880859375
-4.28965950012207 -1.4172314405441284 4.852795124053955
-4.237982749938965 0.25509077310562134 4.657127857208252
-4.2440643310546875 -0.042639002203941345 4.725780487060547
-4.244896411895752 -0.1210995689034462 4.780341148376465
-4.241759777069092 -0.024966679513454437 4.773648738861084
-4.24071741104126 -0.0936170369386673 4.819246768951416
-4.248052597045898 -0.12456387281417847 4.828595161437988
-4.229866981506348 0.2392938733100891 4.793391704559326
-4.230605602264404 0.1814775913953781 4.802204608917236
-4.239185810089111 -0.08841861039400101 4.845942497253418
-4.233606338500977 -0.1487196832895279 4.85529899597168
-4.242395877838135 -0.05352499708533287 4.846928119659424
-4.243290424346924 -0.13597427308559418 4.859478950500488
-4.232592582702637 0.1668163388967514 4.823280334472656
-4.232592582702637 0.1668163388967514 4.823280334472656
-4.271969318389893 -1.9235625267028809 5.084258556365967
-4.2433953285217285 -0.08401220291852951 4.864616394042969
-4.280442237854004 -1.9359196424484253 5.095655918121338
-4.240023612976074 -0.16589802503585815 4.890481472015381
-4.240023612976074 -0.16589802503585815 4.890481472015381
-4.239534378051758 -0.13870744407176971 4.8877272605896
-4.279850959777832 -1.9863556623458862 5.114805221557617
-4.287585735321045 -2.0065536499023438 5.124139785766602
-4.252867221832275 -0.09062309563159943 4.895533084869385
-4.279244422912598 -2.024129867553711 5.141096591949463
-4.279244422912598 -2.024129867553711 5.141096591949463
-4.1288909912109375 -2.484178304672241 5.180449485778809
-4.2767839431762695 -2.157935857772827 5.173028945922852
-4.2060136795043945 1.051825761795044 4.778689861297607
-4.279553413391113 -2.1096489429473877 5.19198751449585
-4.279904842376709 -2.0289950370788574 5.1841325759887695
-4.28254508972168 -2.199018955230713 5.211509704589844
-4.285455226898193 -2.2846908569335938 5.22252893447876
-4.27802038192749 -1.9373074769973755 5.183401584625244
-4.241361141204834 0.02967992052435875 4.94359016418457
-4.241361141204834 0.02967992052435875 4.94359016418457
-4.28251838684082 -2.2190821170806885 5.226711750030518
-4.253538608551025 -0.2789759337902069 4.99329137802124
-4.253538608551025 -0.2789759337902069 4.99329137802124
-4.253538608551025 -0.2789759337902069 4.99329137802124
-4.279288291931152 -2.091097116470337 5.217772483825684
-4.2542548179626465 -0.7731051445007324 5.062497615814209
-4.21154260635376 0.7442139983177185 4.8734965324401855
-4.281528472900391 -2.2140231132507324 5.2539801597595215
-4.277696132659912 -2.275787591934204 5.263056755065918
-4.279316425323486 -2.1531331539154053 5.2494635581970215
-4.265195369720459 -1.923099398612976 5.222186088562012
-4.275069713592529 -2.105118989944458 5.305072784423828
-4.267044544219971 -1.9770288467407227 5.302584171295166
-4.26807975769043 -1.9133937358856201 5.298565864562988
-4.26807975769043 -1.9133937358856201 5.298565864562988
-4.2305498123168945 -0.12086842954158783 5.099711894989014
-4.19841194152832 1.0965418815612793 4.950830936431885
-4.233929634094238 -0.3265491724014282 5.135836124420166
-4.2345685958862305 -0.104780413210392 5.117318153381348
-4.266385555267334 -2.0166897773742676 5.376882553100586
-4.266385555267334 -2.0166897773742676 5.376882553100586
-4.2560648918151855 -1.6205939054489136 5.345775604248047
-4.2560648918151855 -1.6205939054489136 5.345775604248047
-4.263701438903809 -1.9811335802078247 5.39560604095459
-4.25813102722168 -1.9601012468338013 5.3924241065979
-4.25813102722168 -1.9601012468338013 5.3924241065979
-4.268215656280518 -1.9006505012512207 5.386975288391113
-4.261605262756348 -1.989513874053955 5.407375335693359
-4.261605262756348 -1.989513874053955 5.407375335693359
-4.271942138671875 -2.121481418609619 5.4280009269714355
-4.245935440063477 -1.0013184547424316 5.296706199645996
-4.2456769943237305 -1.113745927810669 5.313465595245361
-4.254758358001709 -1.6150903701782227 5.39640998840332
-4.204716205596924 0.561103880405426 5.132326126098633
-4.190739154815674 1.0194265842437744 5.078631401062012
-4.257959842681885 -1.8758431673049927 5.461725234985352
-4.191925048828125 1.0955626964569092 5.071846008300781
-4.252939701080322 -1.9356786012649536 5.48032808303833
-4.252939701080322 -1.9356786012649536 5.48032808303833
-4.252939701080322 -1.9356786012649536 5.48032808303833
-4.2545976638793945 -1.8722981214523315 5.479000568389893
-4.207147121429443 0.43107765913009644 5.17954158782959
-4.265816688537598 -2.097343683242798 5.513912677764893
-4.25778865814209 -2.217952251434326 5.532082557678223
-4.23162317276001 -0.46170729398727417 5.331199645996094
-4.23162317276001 -0.46170729398727417 5.331199645996094
-4.186896324157715 1.10671067237854 5.12421178817749
-4.191527366638184 0.886307418346405 5.161011219024658
-4.206585884094238 0.32732564210891724 5.238391876220703
-4.238879203796387 -0.9097748398780823 5.406352996826172
-4.202308177947998 0.5516161322593689 5.211794853210449
-4.202308177947998 0.5516161322593689 5.211794853210449
-4.184597969055176 1.0985456705093384 5.147414207458496
-4.208929061889648 0.21395182609558105 5.2749247550964355
-4.20963716506958 0.21534356474876404 5.2791523933410645
-4.20963716506958 0.21534356474876404 5.2791523933410645
-4.232900619506836 -1.0001788139343262 5.447114944458008
-4.208871364593506 0.1852792352437973 5.290038108825684
-4.185666084289551 1.0826421976089478 5.169496536254883
-4.2151713371276855 -0.16112014651298523 5.346872329711914
-4.182372570037842 1.1406134366989136 5.173956871032715
-4.201781749725342 0.3323020339012146 5.303423881530762
-4.179691791534424 1.2919480800628662 5.175297737121582
-4.2462544441223145 -1.9146209955215454 5.609529972076416
-4.233745098114014 -1.3695054054260254 5.5582194328308105
-4.230949878692627 -1.3000620603561401 5.551265239715576
-4.225083351135254 -1.0817983150482178 5.528215408325195
-4.2065300941467285 0.27694153785705566 5.352694988250732
-4.232247829437256 -1.2609983682632446 5.562610626220703
-4.231303691864014 -0.958453893661499 5.549089431762695
-4.27227783203125 -0.6547554135322571 5.551372528076172
-4.22517728805542 -1.0539757013320923 5.606113433837891
-4.202353000640869 0.24932268261909485 5.428194522857666
-4.202353000640869 0.24932268261909485 5.428194522857666
-4.199628829956055 0.24231937527656555 5.4422607421875
-4.22390079498291 -1.1428158283233643 5.636958599090576
-5.655163764953613 -0.9650252461433411 5.911505222320557
-4.1999616622924805 0.21315622329711914 5.455549716949463
-4.1999616622924805 0.21315622329711914 5.455549716949463
-4.221810340881348 -1.058979868888855 5.632805347442627
-4.220768928527832 -1.0347394943237305 5.634650230407715
-4.217967987060547 -1.0063369274139404 5.640695095062256
-4.216612339019775 -1.146938681602478 5.663581848144531
-4.203632354736328 0.2540799677371979 5.472374439239502
-4.2219014167785645 -1.1011157035827637 5.659365653991699
-4.215270042419434 -1.011481523513794 5.651827812194824
-4.197494983673096 0.1973123848438263 5.486354827880859
-4.219511032104492 -1.0383479595184326 5.665614604949951
-4.217155933380127 -1.1088052988052368 5.677830696105957
-4.19451379776001 0.26685115694999695 5.488792896270752
-4.19624137878418 0.3240506649017334 5.481764316558838
-4.216612815856934 -1.0706526041030884 5.678834438323975
-4.217829704284668 -0.9640592336654663 5.672226428985596
-4.21614933013916 -1.0886216163635254 5.693164825439453
-4.196881294250488 0.2094392031431198 5.519712448120117
-4.214977741241455 -1.0499600172042847 5.694626808166504
-4.214977741241455 -1.0499600172042847 5.694626808166504
-4.214951038360596 -0.9889039397239685 5.692210674285889
-4.215763568878174 -0.9394435286521912 5.68718147277832
-4.215763568878174 -0.9394435286521912 5.68718147277832
-4.2143235206604 -1.0579618215560913 5.707231521606445
-4.195388317108154 0.30033859610557556 5.5194830894470215
-4.195388317108154 0.30033859610557556 5.5194830894470215
-4.232619285583496 0.849027156829834 5.454743385314941
-4.199233055114746 0.2691460847854614 5.530505180358887
-4.230621814727783 0.818747341632843 5.466188430786133
-4.258547306060791 -0.8306880593299866 5.701707363128662
-4.258547306060791 -0.8306880593299866 5.701707363128662
-4.212105751037598 -0.9949716925621033 5.715034008026123
-4.213773727416992 -1.0536246299743652 5.724959850311279
-4.191028118133545 0.335041344165802 5.545572280883789
-4.211634635925293 -0.9787651896476746 5.731870651245117
-4.194380283355713 0.18953746557235718 5.569425582885742
-4.233674049377441 -2.1233699321746826 5.894937992095947
16.406484603881836 2.6823537349700928 0.7134273052215576
-4.191113471984863 0.2839955985546112 5.561871528625488
-4.213624954223633 -1.1779862642288208 5.767289638519287
-4.232714653015137 0.8839120268821716 5.494806289672852
-4.192432403564453 0.2187252938747406 5.580244541168213
-4.201313018798828 0.15710344910621643 5.596035480499268
-4.205596923828125 -0.986339271068573 5.7563300132751465
-4.210611820220947 -0.9270449280738831 5.75038480758667
-4.210611820220947 -0.9270449280738831 5.75038480758667
-4.228164196014404 -2.17948579788208 5.929780006408691
-4.259860038757324 -0.832145094871521 5.753822326660156
-4.259860038757324 -0.832145094871521 5.753822326660156
-4.194000244140625 0.23112036287784576 5.602587699890137
-4.208554267883301 -1.0202962160110474 5.786609649658203
-4.2339653968811035 0.45963239669799805 5.590761661529541
-4.232398986816406 -2.0879404544830322 5.947471618652344
-4.208105087280273 -0.9910352230072021 5.796536922454834
-4.208105087280273 -0.9910352230072021 5.796536922454834
-4.207758903503418 -0.9470767974853516 5.793673038482666
-4.2284321784973145 -2.097313642501831 5.95777702331543
-4.207072734832764 -1.0461359024047852 5.812087535858154
-4.207072734832764 -1.0461359024047852 5.812087535858154
-4.206184387207031 -1.0054856538772583 5.8082194328308105
-4.229179382324219 -2.0954477787017822 5.973604679107666
-4.204586029052734 -1.0099856853485107 5.824481010437012
-4.21047830581665 -1.1157011985778809 5.84555196762085
-4.241162300109863 0.46303480863571167 5.63751220703125
16.45478630065918 2.5215117931365967 0.5632678270339966
-4.228788375854492 -2.1544437408447266 6.004715919494629
-4.207502365112305 -0.9474804997444153 5.83211088180542
-4.200469017028809 -0.9423257112503052 5.854021072387695
-4.201604843139648 -0.9104679226875305 5.852880477905273
-4.178038597106934 0.3986973166465759 5.699417591094971
-4.196835517883301 -0.9380016326904297 5.901424407958984
-4.200588703155518 -0.9560952186584473 5.911192893981934
-4.200521469116211 -0.8711510896682739 5.910073757171631
-4.195270538330078 -0.9359084963798523 5.919193267822266
-4.190155982971191 -0.12074187397956848 5.812750816345215
-4.196839332580566 -0.9889307022094727 5.944270133972168
-4.159974575042725 0.8554372191429138 5.684260368347168
-4.196393013000488 -0.9278085231781006 5.949392795562744
-4.200375080108643 -1.2273454666137695 5.9996724128723145
-4.200375080108643 -1.2273454666137695 5.9996724128723145
-4.169692039489746 -0.23985537886619568 5.873104095458984
-4.225680828094482 -2.1032261848449707 6.256041049957275
-4.183467388153076 -0.3348497450351715 6.0024895668029785
-4.183732032775879 -0.6402559280395508 6.04928731918335
-4.1876983642578125 -0.5938400626182556 6.044764518737793
-4.211376190185547 -1.8496454954147339 6.236315727233887
-4.191054344177246 -0.8853388428688049 6.0913405418396
-4.188951015472412 -0.5559797883033752 6.0469560623168945
-4.186973571777344 -0.6145120859146118 6.0561699867248535
-4.209206581115723 -2.1280059814453125 6.289122104644775
-4.209206581115723 -2.1280059814453125 6.289122104644775
-4.180753231048584 -0.7109857201576233 6.075098991394043
-4.17744255065918 -0.6486333608627319 6.066580295562744
-4.204636096954346 -1.9545025825500488 6.266047954559326
-4.176868915557861 -0.6145889163017273 6.069544792175293
-4.176868915557861 -0.6145889163017273 6.069544792175293
-4.178050518035889 -0.5871787071228027 6.072479724884033
-4.175267219543457 -0.7636486887931824 6.098031997680664
-4.175267219543457 -0.7636486887931824 6.098031997680664
-4.182400226593018 -0.6502065658569336 6.0840229988098145
-4.169746398925781 -0.8334469199180603 6.1076154708862305
-4.169746398925781 -0.8334469199180603 6.1076154708862305
-4.174118995666504 -0.7176911234855652 6.094248294830322
-4.1800217628479 -0.5565869212150574 6.072482585906982
-4.206216335296631 -1.7644447088241577 6.265951156616211
-4.151536464691162 -0.8209037184715271 6.137911319732666
-4.1913652420043945 -1.0613330602645874 6.210108280181885
-4.1847004890441895 -0.6867120265960693 6.159921646118164
-4.20937442779541 -1.9416720867156982 6.353372097015381
-4.184881687164307 -1.0796101093292236 6.21946907043457
-4.163576602935791 -0.8454000353813171 6.187167167663574
-4.200459957122803 -1.751573085784912 6.341108798980713
-4.181536674499512 -0.8836001753807068 6.219897270202637
-4.1710429191589355 -0.7099977731704712 6.191891193389893
-4.168853759765625 -1.064532995223999 6.258355617523193
-4.172996997833252 -1.0425585508346558 6.257862567901611
-4.172996997833252 -1.0425585508346558 6.257862567901611
-4.177554130554199 -0.9452114701271057 6.249988079071045
-4.177554130554199 -0.9452114701271057 6.249988079071045
-4.196298599243164 -1.9331310987472534 6.405172348022461
-4.179476737976074 -0.8430169820785522 6.246407985687256
-4.163903713226318 -0.6831876039505005 6.218286514282227
-4.152419090270996 -1.1283897161483765 6.30610466003418
-4.163799285888672 -1.217265248298645 6.329769611358643
-4.162842750549316 -0.9738438129425049 6.297743797302246
-4.195234775543213 -1.8970667123794556 6.447327136993408
-4.178905010223389 -0.9193708896636963 6.299988269805908
-4.193195819854736 -1.795861005783081 6.442862033843994
-4.193774223327637 -1.827013373374939 6.4551591873168945
-4.193774223327637 -1.827013373374939 6.4551591873168945
-4.150067329406738 -1.021633505821228 6.322380065917969
-4.1793365478515625 -0.9447205662727356 6.319417953491211
-4.157853603363037 -1.1500813961029053 6.344905853271484
-4.195981979370117 -2.0718204975128174 6.498119354248047
-4.142613410949707 -0.681381344795227 6.27541446685791
-4.176985740661621 -0.8773795366287231 6.320125579833984
-4.144485950469971 -1.1735104322433472 6.3595685958862305
-4.131697177886963 -1.198340654373169 6.359628677368164
-4.143021106719971 -1.2273049354553223 6.367496967315674
-4.191346168518066 -2.0936756134033203 6.521057605743408
-4.143146514892578 -1.0396174192428589 6.35303258895874
-4.1675896644592285 -0.9790288209915161 6.35266637802124
-4.174652576446533 -0.923473596572876 6.350377559661865
-4.168220520019531 -0.9190865755081177 6.36346435546875
-4.1656389236450195 -0.89276123046875 6.36052131652832
-4.170124530792236 -0.9368107318878174 6.371582508087158
-4.164475440979004 -0.9622704982757568 6.374915599822998
-3.5647807121276855 0.26879921555519104 6.009973526000977
-4.164177417755127 -0.9052032232284546 6.370393753051758
-4.141824245452881 -1.1746551990509033 6.406826496124268
-4.166715621948242 -0.8655732274055481 6.3675360679626465
-4.166715621948242 -0.8655732274055481 6.3675360679626465
-4.16460657119751 -0.880976140499115 6.376555919647217
-4.126710414886475 -1.1526219844818115 6.411820888519287
-4.174161911010742 -0.9391926527023315 6.394820213317871
-4.1638569831848145 -0.6646196246147156 6.370921611785889
-4.173208713531494 -1.0109366178512573 6.429654598236084
-4.172256946563721 -0.9677484035491943 6.422948837280273
-4.173177719116211 -0.9859093427658081 6.43836784362793
-4.1341376304626465 -0.7371969819068909 6.3897929191589355
-4.172082424163818 -1.0050036907196045 6.446517467498779
-4.172752380371094 -0.9538974165916443 6.443334579467773
